# .PCD v0.7 - Point Cloud Data file format
VERSION 0.7
FIELDS x y z rgb
SIZE 4 4 4 4
TYPE F F F F
COUNT 1 1 1 1
WIDTH 1103
HEIGHT 1
VIEWPOINT 0 0 0 1 0 0 0
POINTS 1103
DATA ascii
-0.027927587 -0.17953448 1.1570001 2.0192288e-38
-0.023937933 -0.17953448 1.1570001 1.9270704e-38
-0.020017242 -0.18015517 1.161 2.0191572e-38
-0.016013794 -0.18015517 1.161 1.9547997e-38
-0.012010345 -0.18015517 1.161 1.9732033e-38
-0.007979311 -0.17953448 1.1570001 2.0007899e-38
-0.0039896555 -0.17953448 1.1570001 1.9639117e-38
0 -0.17953448 1.1570001 1.9730593e-38
0.0039896555 -0.17953448 1.1570001 1.9547641e-38
0.007979311 -0.17953448 1.1570001 1.9732386e-38
0.011927586 -0.17891379 1.153 1.9732389e-38
0.015903449 -0.17891379 1.153 1.9363606e-38
0.019879309 -0.17891379 1.153 1.9455802e-38
0.023855172 -0.17891379 1.153 1.8994823e-38
0.027734485 -0.17829311 1.149 1.9087019e-38
0.031696554 -0.17829311 1.149 1.927141e-38
0.03565862 -0.17829311 1.149 1.8257984e-38
0.03962069 -0.17829311 1.149 1.8257984e-38
0.043582764 -0.17829311 1.149 1.8257621e-38
0.04754483 -0.17829311 1.149 1.7704811e-38
0.051506899 -0.17829311 1.149 1.8073593e-38
0.055468969 -0.17829311 1.149 1.7797006e-38
0.059431039 -0.17829311 1.149 1.761118e-38
0.063393109 -0.17829311 1.149 1.7795571e-38
0.067355178 -0.17829311 1.149 1.7150558e-38
0.071068972 -0.17767242 1.1450001 1.7519337e-38
0.07527931 -0.17829311 1.149 1.7518617e-38
0.078965522 -0.17767242 1.1450001 1.7701571e-38
0.082913801 -0.17767242 1.1450001 1.7241311e-38
0.086558625 -0.17705172 1.141 1.7794838e-38
0.090255171 -0.1765862 1.138 1.7426419e-38
0.09417931 -0.1765862 1.138 1.733422e-38
0.098362073 -0.17705172 1.141 1.7335302e-38
0.10229656 -0.17705172 1.141 1.7243107e-38
0.10595172 -0.1765862 1.138 1.7243107e-38
0.10987587 -0.1765862 1.138 1.7058715e-38
0.1138 -0.1765862 1.138 1.6967233e-38
0.11731035 -0.17596552 1.1340001 1.7059075e-38
0.12164827 -0.1765862 1.138 1.6782851e-38
0.12513104 -0.17596552 1.1340001 1.761081e-38
0.12904139 -0.17596552 1.1340001 1.7241311e-38
0.13295174 -0.17596552 1.1340001 1.7057639e-38
0.13686207 -0.17596552 1.1340001 1.6689927e-38
0.14077242 -0.17596552 1.1340001 1.6782135e-38
0.14468277 -0.17596552 1.1340001 1.6782135e-38
0.14859311 -0.17596552 1.1340001 1.6413709e-38
0.15250346 -0.17596552 1.1340001 1.6413709e-38
0.15586206 -0.17534482 1.13 1.5860898e-38
0.15975863 -0.17534482 1.13 1.5860179e-38
0.16307588 -0.17472413 1.126 1.6136766e-38
0.1665138 -0.17425862 1.123 1.5860535e-38
0.17038622 -0.17425862 1.123 1.6137122e-38
0.17425862 -0.17425862 1.123 1.5952731e-38
0.17813103 -0.17425862 1.123 1.5215889e-38
0.18200345 -0.17425862 1.123 1.5585027e-38
0.18587586 -0.17425862 1.123 1.4846756e-38
0.19025518 -0.17472413 1.126 1.5859819e-38
0.1936207 -0.17425862 1.123 1.5214447e-38
0.19749311 -0.17425862 1.123 1.521445e-38
0.20136553 -0.17425862 1.123 1.5491034e-38
0.2045069 -0.17363794 1.1190001 1.5213721e-38
0.20836553 -0.17363794 1.1190001 1.5120809e-38
0.21222416 -0.17363794 1.1190001 1.5028969e-38
0.21531035 -0.17301723 1.115 1.4752383e-38
0.21994139 -0.17363794 1.1190001 1.4752746e-38
0.22380002 -0.17363794 1.1190001 1.4201011e-38
0.22765864 -0.17363794 1.1190001 1.4477954e-38
0.23068966 -0.17301723 1.115 1.4107373e-38
0.23453447 -0.17301723 1.115 1.43836e-38
0.23837931 -0.17301723 1.115 1.3922982e-38
0.24157244 -0.17255174 1.1120001 1.3096461e-38
0.24540693 -0.17255174 1.1120001 1.3003547e-38
0.24834484 -0.17193103 1.108 1.3279773e-38
0.25216553 -0.17193103 1.108 1.3830076e-38
0.25852761 -0.17363794 1.1190001 7.5607479e-39
0.26074487 -0.17255174 1.1120001 8.7622226e-39
0.26457933 -0.17255174 1.1120001 1.3000678e-38
0.26744828 -0.17193103 1.108 1.2540053e-38
0.27126896 -0.17193103 1.108 1.2357461e-38
0.27508965 -0.17193103 1.108 1.1989398e-38
0.27891034 -0.17193103 1.108 1.1898278e-38
0.28196549 -0.17146552 1.105 1.235783e-38
0.28577587 -0.17146552 1.105 1.1620262e-38
0.28853795 -0.17084484 1.1010001 1.1804287e-38
0.2923345 -0.17084484 1.1010001 1.1528419e-38
0.29613104 -0.17084484 1.1010001 1.1712097e-38
0.29992759 -0.17084484 1.1010001 1.1525548e-38
0.30372417 -0.17084484 1.1010001 1.1065296e-38
0.30752072 -0.17084484 1.1010001 1.0513561e-38
0.31131727 -0.17084484 1.1010001 1.0513561e-38
0.31396896 -0.17022413 1.097 1.0145135e-38
0.31775174 -0.17022413 1.097 1.0236599e-38
0.3206552 -0.16975863 1.0940001 1.0328797e-38
0.32442763 -0.16975863 1.0940001 9.8674631e-39
0.32820004 -0.16975863 1.0940001 1.0328447e-38
nan nan nan 8.4830797e-39
0.2832655 -0.14322414 0.92300004 1.5694935e-39
0.28644827 -0.14322414 0.92300004 3.3226552e-39
0.28806207 -0.14244828 0.91800004 2.8634749e-39
0.29027587 -0.14198275 0.91500002 9.3157467e-39
0.29278967 -0.14167242 0.91300005 9.406876e-39
0.29496554 -0.14120689 0.91000003 8.4867021e-39
0.29810345 -0.14120689 0.91000003 7.5643983e-39
0.30057934 -0.14089656 0.90800005 6.7346222e-39
0.30371037 -0.14089656 0.90800005 4.8003287e-39
0.3068414 -0.14089656 0.90800005 5.810152e-39
0.30997244 -0.14089656 0.90800005 4.982192e-39
0.31310347 -0.14089656 0.90800005 4.4275861e-39
0.31553796 -0.1405862 0.90600002 4.4261315e-39
0.31866208 -0.1405862 0.90600002 3.8751157e-39
0.32072073 -0.1401207 0.90300006 3.2311883e-39
0.32491037 -0.1405862 0.90600002 3.8754689e-39
nan nan nan 3.5030836e-39
nan nan nan 4.8903214e-39
nan nan nan 6.0885087e-39
nan nan nan 6.1781988e-39
0.39841381 -0.16448276 1.0600001 6.5487764e-39
0.40206897 -0.16448276 1.0600001 6.0860032e-39
0.40955174 -0.16603449 1.0700001 6.8217732e-39
0.41440004 -0.1665 1.0730001 6.4551388e-39
0.41810003 -0.1665 1.0730001 5.4427946e-39
nan nan nan 5.9016147e-39
nan nan nan 5.7168703e-39
nan nan nan 5.9016147e-39
nan nan nan 6.2682238e-39
nan nan nan 6.8149236e-39
0.37669659 -0.14244828 0.91800004 5.435952e-39
0.43986213 -0.16494828 1.0630001 4.1477468e-39
0.44352761 -0.16494828 1.0630001 4.5162056e-39
0.44719312 -0.16494828 1.0630001 4.7934693e-39
0.39232761 -0.14353448 0.92500007 4.5147468e-39
0.39551726 -0.14353448 0.92500007 5.2540943e-39
0.39870691 -0.14353448 0.92500007 4.6108759e-39
0.4032 -0.14399999 0.92800003 4.057349e-39
0.40508625 -0.14353448 0.92500007 3.6885665e-39
0.4082759 -0.14353448 0.92500007 3.5963709e-39
0.41146556 -0.14353448 0.92500007 2.9535224e-39
0.41375864 -0.14322414 0.92300004 3.2301093e-39
0.41920003 -0.14399999 0.92800003 4.0598601e-39
0.41784829 -0.14244828 0.91800004 4.2431948e-39
0.41963795 -0.14198275 0.91500002 4.1477468e-39
0.42279312 -0.14198275 0.91500002 4.7923903e-39
0.42594829 -0.14198275 0.91500002 4.0577021e-39
0.42910346 -0.14198275 0.91500002 4.7030715e-39
0.43367586 -0.14244828 0.91800004 4.9796584e-39
0.43541378 -0.14198275 0.91500002 4.7027184e-39
nan nan nan 5.8104729e-39
nan nan nan 6.6398832e-39
nan nan nan 5.6289683e-39
nan nan nan 5.6275586e-39
nan nan nan 5.1636966e-39
nan nan nan 6.6377322e-39
nan nan nan 7.0976412e-39
nan nan nan 6.915754e-39
nan nan nan 7.743714e-39
nan nan nan 7.7444357e-39
nan nan nan 6.8260737e-39
nan nan nan 6.9171904e-39
nan nan nan 4.6133786e-39
nan nan nan 1.7542351e-39
nan nan nan 2.2152133e-39
nan nan nan 2.5836454e-39
nan nan nan 3.1343011e-39
nan nan nan 2.5836454e-39
nan nan nan 2.3992542e-39
nan nan nan 2.2148629e-39
nan nan nan 2.2148629e-39
nan nan nan 1.0239829e-38
nan nan nan 1.0700091e-38
nan nan nan 1.0791924e-38
-0.66210693 -0.18555863 1.223 1.0699362e-38
-0.655738 -0.18495175 1.2190001 1.0146554e-38
-0.65153456 -0.18495175 1.2190001 1.1342583e-38
-0.64733106 -0.18495175 1.2190001 1.0881602e-38
-0.64048976 -0.18419313 1.2140001 1.1159268e-38
-0.63630348 -0.18419313 1.2140001 1.0516413e-38
-0.63211733 -0.18419313 1.2140001 1.0148356e-38
-0.62793106 -0.18419313 1.2140001 1.005581e-38
-0.6237449 -0.18419313 1.2140001 1.0148356e-38
-0.61751723 -0.18358622 1.21 1.0699728e-38
-0.61334485 -0.18358622 1.21 1.0606823e-38
-0.6091724 -0.18358622 1.21 1.1251114e-38
-0.60500002 -0.18358622 1.21 1.1710643e-38
-0.60281384 -0.18419313 1.2140001 1.1710643e-38
-0.59862763 -0.18419313 1.2140001 1.1159621e-38
-0.59444141 -0.18419313 1.2140001 1.079157e-38
-0.5902552 -0.18419313 1.2140001 1.0791205e-38
-0.58606899 -0.18419313 1.2140001 1.1435485e-38
-0.58188277 -0.18419313 1.2140001 1.0606813e-38
-0.57769656 -0.18419313 1.2140001 1.1344369e-38
-0.57351035 -0.18419313 1.2140001 1.1249665e-38
-0.5693242 -0.18419313 1.2140001 1.1618079e-38
-0.56513798 -0.18419313 1.2140001 1.1250385e-38
-0.56095177 -0.18419313 1.2140001 1.16206e-38
-0.55676556 -0.18419313 1.2140001 1.0699009e-38
-0.55257934 -0.18419313 1.2140001 1.1528054e-38
-0.54658622 -0.18358622 1.21 1.1434776e-38
-0.54420692 -0.18419313 1.2140001 1.1526252e-38
-0.54002076 -0.18419313 1.2140001 1.1251464e-38
-0.534069 -0.18358622 1.21 1.1438372e-38
-0.52989656 -0.18358622 1.21 1.1068167e-38
-0.52572417 -0.18358622 1.21 1.1435855e-38
-0.52155173 -0.18358622 1.21 1.2082297e-38
-0.51737934 -0.18358622 1.21 1.152877e-38
-0.5132069 -0.18358622 1.21 1.1530202e-38
-0.50903445 -0.18358622 1.21 1.2542912e-38
-0.50486207 -0.18358622 1.21 1.1712442e-38
-0.50068969 -0.18358622 1.21 1.2542912e-38
-0.49651727 -0.18358622 1.21 1.1712811e-38
-0.49234486 -0.18358622 1.21 1.235853e-38
-0.48817244 -0.18358622 1.21 1.1619909e-38
-0.48400003 -0.18358622 1.21 1.2634752e-38
-0.47824141 -0.18297933 1.2060001 1.235818e-38
nan nan nan 1.1345473e-38
nan nan nan 7.9367779e-39
-0.39238623 -0.15415174 1.016 1.0246014e-39
-0.38888276 -0.15415174 1.016 4.2453304e-39
-0.38537931 -0.15415174 1.016 2.4982924e-39
-0.37962067 -0.15324138 1.01 4.060586e-39
-0.37613791 -0.15324138 1.01 1.6624458e-39
-0.37265515 -0.15324138 1.01 2.0301241e-39
-0.37026897 -0.15369657 1.013 9.2809258e-40
-0.36677584 -0.15369657 1.013 1.2050396e-39
nan nan nan 1.9379285e-39
nan nan nan 2.2163203e-39
nan nan nan 4.7988545e-39
nan nan nan 9.3493232e-40
-0.41724139 -0.18358622 1.21 5.3523814e-39
-0.4117035 -0.18297933 1.2060001 1.0975611e-38
-0.40889657 -0.18358622 1.21 1.0973804e-38
-0.40472415 -0.18358622 1.21 1.106492e-38
-0.40055174 -0.18358622 1.21 1.0973804e-38
-0.395069 -0.18297933 1.2060001 1.1158918e-38
-0.39091036 -0.18297933 1.2060001 1.0514267e-38
-0.38675174 -0.18297933 1.2060001 1.0974532e-38
-0.38132414 -0.18237242 1.202 1.079157e-38
-0.37843451 -0.18297933 1.2060001 1.1436221e-38
-0.37303448 -0.18237242 1.202 1.1712445e-38
-0.37011725 -0.18297933 1.2060001 1.2081225e-38
-0.36595866 -0.18297933 1.2060001 1.245001e-38
-0.36060002 -0.18237242 1.202 1.2172347e-38
-0.35645518 -0.18237242 1.202 1.2908833e-38
-0.35084486 -0.1816138 1.197 1.2449657e-38
-0.34671727 -0.1816138 1.197 1.2909912e-38
-0.34258968 -0.1816138 1.197 1.2818792e-38
-0.33987588 -0.18237242 1.202 1.2910988e-38
-0.33433449 -0.1816138 1.197 1.3002831e-38
-0.3302069 -0.1816138 1.197 1.3647484e-38
-0.32607931 -0.1816138 1.197 1.3647477e-38
-0.32195172 -0.1816138 1.197 1.3095382e-38
-0.31782413 -0.1816138 1.197 1.3371976e-38
-0.31369656 -0.1816138 1.197 1.401662e-38
-0.30956897 -0.1816138 1.197 1.4108455e-38
-0.30544138 -0.1816138 1.197 1.4291765e-38
-0.30131379 -0.1816138 1.197 1.4016266e-38
-0.29718623 -0.1816138 1.197 1.4478317e-38
-0.29305863 -0.1816138 1.197 1.4570512e-38
-0.28893104 -0.1816138 1.197 1.4385771e-38
-0.28480345 -0.1816138 1.197 1.4662708e-38
-0.28067589 -0.1816138 1.197 1.5121525e-38
-0.2765483 -0.1816138 1.197 1.5122251e-38
-0.27151036 -0.18100692 1.1930001 1.5582506e-38
-0.26739657 -0.18100692 1.1930001 1.5490311e-38
-0.26328278 -0.18100692 1.1930001 1.5491387e-38
-0.25916898 -0.18100692 1.1930001 1.5306995e-38
-0.25420001 -0.18040001 1.189 1.5675778e-38
-0.25009999 -0.18040001 1.189 1.5305919e-38
-0.24600001 -0.18040001 1.189 1.6044561e-38
-0.24190001 -0.18040001 1.189 1.5398838e-38
-0.2378 -0.18040001 1.189 1.6134961e-38
-0.23370001 -0.18040001 1.189 1.5767976e-38
-0.2296 -0.18040001 1.189 1.5675425e-38
-0.22474138 -0.17979312 1.1850001 1.6319718e-38
-0.22065517 -0.17979312 1.1850001 1.650446e-38
-0.21583794 -0.17918622 1.1810001 1.6227522e-38
-0.21176554 -0.17918622 1.1810001 1.5952015e-38
-0.20839657 -0.17979312 1.1850001 1.6780333e-38
-0.20431036 -0.17979312 1.1850001 1.6781047e-38
-0.2009 -0.18040001 1.189 1.6413346e-38
-0.19680001 -0.18040001 1.189 1.6782123e-38
-0.19205174 -0.17979312 1.1850001 1.6873245e-38
-0.18796553 -0.17979312 1.1850001 1.6966517e-38
-0.18325864 -0.17918622 1.1810001 1.7611163e-38
-0.17918622 -0.17918622 1.1810001 1.7611886e-38
-0.17570691 -0.17979312 1.1850001 1.8163984e-38
-0.1710414 -0.17918622 1.1810001 1.788812e-38
-0.16696899 -0.17918622 1.1810001 1.8256179e-38
-0.16344829 -0.17979312 1.1850001 1.844165e-38
-0.15936208 -0.17979312 1.1850001 1.8810792e-38
-0.15475173 -0.17918622 1.1810001 1.8994821e-38
-0.15067932 -0.17918622 1.1810001 1.9087382e-38
-0.14660691 -0.17918622 1.1810001 1.9179578e-38
-0.14253449 -0.17918622 1.1810001 1.8626767e-38
-0.13846208 -0.17918622 1.1810001 1.8811158e-38
-0.13438967 -0.17918622 1.1810001 1.9271773e-38
-0.13031726 -0.17918622 1.1810001 1.8995909e-38
-0.12624484 -0.17918622 1.1810001 1.9272133e-38
-0.12175863 -0.17857933 1.177 1.8350183e-38
-0.1177 -0.17857933 1.177 1.9363969e-38
-0.11364138 -0.17857933 1.177 1.8903354e-38
-0.10958276 -0.17857933 1.177 1.936325e-38
-0.10552415 -0.17857933 1.177 1.9363606e-38
-0.10146552 -0.17857933 1.177 1.936325e-38
-0.097406901 -0.17857933 1.177 1.973131e-38
-0.09334828 -0.17857933 1.177 1.9455802e-38
-0.089289665 -0.17857933 1.177 1.9455802e-38
-0.084941387 -0.17797244 1.1730001 1.9547997e-38
-0.081172414 -0.17857933 1.177 1.9638395e-38
-0.076851726 -0.17797244 1.1730001 1.9732389e-38
-0.072806902 -0.17797244 1.1730001 1.9547997e-38
-0.068527587 -0.17736553 1.169 1.9178859e-38
-0.064717248 -0.17797244 1.1730001 1.9546202e-38
-0.060672421 -0.17797244 1.1730001 1.9084508e-38
-0.056434482 -0.17736553 1.169 1.9177054e-38
-0.05240345 -0.17736553 1.169 1.9269613e-38
-0.048206899 -0.17675865 1.1650001 1.9178136e-38
-0.044189662 -0.17675865 1.1650001 1.9178133e-38
-0.040172417 -0.17675865 1.1650001 1.8993744e-38
-0.036155175 -0.17675865 1.1650001 1.8717881e-38
-0.032137934 -0.17675865 1.1650001 1.9086663e-38
-0.028024139 -0.17615174 1.161 1.9086663e-38
-0.02402069 -0.17615174 1.161 1.8534574e-38
-0.020017242 -0.17615174 1.161 1.9272133e-38
-0.016068967 -0.17675865 1.1650001 1.8442739e-38
-0.012051725 -0.17675865 1.1650001 1.8995547e-38
-0.0080344835 -0.17675865 1.1650001 1.9088098e-38
-0.0040034484 -0.17615174 1.161 1.9179938e-38
0 -0.17615174 1.161 1.8902272e-38
0.0040034484 -0.17615174 1.161 1.9730591e-38
0.0080068968 -0.17615174 1.161 1.8810792e-38
0.011968967 -0.17554484 1.1570001 1.8994823e-38
0.015958622 -0.17554484 1.1570001 1.8625685e-38
0.019948278 -0.17554484 1.1570001 1.8901549e-38
0.023855172 -0.17493793 1.153 1.8349098e-38
0.027831035 -0.17493793 1.153 1.8442013e-38
0.031806897 -0.17493793 1.153 1.7704445e-38
0.035782758 -0.17493793 1.153 1.8073583e-38
0.039758619 -0.17493793 1.153 1.75197e-38
0.043734483 -0.17493793 1.153 1.8071791e-38
0.047710344 -0.17493793 1.153 1.7427861e-38
0.051686209 -0.17493793 1.153 1.7335309e-38
0.055468969 -0.17433105 1.149 1.7242397e-38
0.059637934 -0.17493793 1.153 1.7426789e-38
0.063613795 -0.17493793 1.153 1.6875053e-38
0.067589656 -0.17493793 1.153 1.6782491e-38
0.071317241 -0.17433105 1.149 1.6597384e-38
0.07527931 -0.17433105 1.149 1.7058359e-38
0.07924138 -0.17433105 1.149 1.6505188e-38
0.082913801 -0.17372416 1.1450001 1.7518617e-38
0.086558625 -0.17311725 1.141 1.6782491e-38
0.090493105 -0.17311725 1.141 1.7058359e-38
0.094427586 -0.17311725 1.141 1.6873968e-38
0.098362073 -0.17311725 1.141 1.7149116e-38
0.10229656 -0.17311725 1.141 1.7424974e-38
0.10623103 -0.17311725 1.141 1.7241665e-38
0.11016552 -0.17311725 1.141 1.6782489e-38
0.1138 -0.17266208 1.138 1.632151e-38
0.11772414 -0.17266208 1.138 1.641299e-38
0.12164827 -0.17266208 1.138 1.6688857e-38
0.12557241 -0.17266208 1.138 1.6504832e-38
0.12949656 -0.17266208 1.138 1.6689943e-38
0.13342069 -0.17266208 1.138 1.65981e-38
0.13734482 -0.17266208 1.138 1.6506255e-38
0.14126897 -0.17266208 1.138 1.6413353e-38
0.1451931 -0.17266208 1.138 1.6136766e-38
0.14911723 -0.17266208 1.138 1.6320794e-38
0.15250346 -0.17205518 1.1340001 1.5952731e-38
0.15641381 -0.17205518 1.1340001 1.6228601e-38
0.16032414 -0.17205518 1.1340001 1.5584308e-38
0.16365518 -0.17144829 1.13 1.5767623e-38
0.16755173 -0.17144829 1.13 1.5675781e-38
0.17144829 -0.17144829 1.13 1.5583948e-38
0.17534482 -0.17144829 1.13 1.5491752e-38
0.17924137 -0.17144829 1.13 1.5030784e-38
0.18313792 -0.17144829 1.13 1.512333e-38
0.18637241 -0.1708414 1.126 1.4846033e-38
0.19025518 -0.1708414 1.126 1.4752392e-38
0.1936207 -0.17038622 1.123 1.4936784e-38
0.19749311 -0.17038622 1.123 1.46602e-38
0.20136553 -0.17038622 1.123 1.5120809e-38
0.20523793 -0.17038622 1.123 1.4752032e-38
0.20836553 -0.16977933 1.1190001 1.4567285e-38
0.21222416 -0.16977933 1.1190001 1.438361e-38
0.21608277 -0.16977933 1.1190001 1.4199572e-38
0.21994139 -0.16977933 1.1190001 1.3647124e-38
0.22380002 -0.16977933 1.1190001 1.401518e-38
0.22765864 -0.16977933 1.1190001 1.3463809e-38
0.23151727 -0.16977933 1.1190001 1.364784e-38
0.23537587 -0.16977933 1.1190001 1.3187222e-38
0.23923449 -0.16977933 1.1190001 1.2818795e-38
0.24222414 -0.16917242 1.115 1.2818795e-38
0.24606897 -0.16917242 1.115 1.272696e-38
0.2499138 -0.16917242 1.115 1.2910635e-38
0.25375864 -0.16917242 1.115 1.1896489e-38
0.25852761 -0.16977933 1.1190001 4.4300467e-39
0.26238623 -0.16977933 1.1190001 1.162243e-38
0.26529309 -0.16917242 1.115 1.2079795e-38
0.26841381 -0.16871727 1.1120001 1.2723726e-38
0.2722483 -0.16871727 1.1120001 1.1527701e-38
0.27608278 -0.16871727 1.1120001 1.1527701e-38
0.27991724 -0.16871727 1.1120001 1.1066722e-38
0.28273103 -0.16811036 1.108 1.1896136e-38
0.28655171 -0.16811036 1.108 1.2079075e-38
0.28958622 -0.16765518 1.105 1.042099e-38
0.29339656 -0.16765518 1.105 7.6598001e-39
0.29720691 -0.16765518 1.105 7.9345877e-39
0.30101725 -0.16765518 1.105 8.3022856e-39
0.3048276 -0.16765518 1.105 1.032915e-38
0.30863795 -0.16765518 1.105 9.8671002e-39
0.31244829 -0.16765518 1.105 1.0788333e-38
0.31511381 -0.16704829 1.1010001 9.131696e-39
0.31891036 -0.16704829 1.1010001 9.6855886e-39
0.32153448 -0.16644138 1.097 9.2256965e-39
0.32442763 -0.16598623 1.0940001 9.3171662e-39
0.32820004 -0.16598623 1.0940001 8.8551091e-39
nan nan nan 7.0090385e-39
0.28234482 -0.13958621 0.92000002 2.0279535e-39
0.28551725 -0.13958621 0.92000002 2.2148629e-39
0.28806207 -0.13928278 0.91800004 2.3996045e-39
0.29027587 -0.13882759 0.91500002 8.5749251e-39
0.29278967 -0.13852414 0.91300005 1.0697958e-38
0.29431725 -0.13776553 0.90800005 8.8555042e-39
0.29744828 -0.13776553 0.90800005 7.657317e-39
0.30057934 -0.13776553 0.90800005 7.0108462e-39
0.30371037 -0.13776553 0.90800005 6.3644104e-39
0.3068414 -0.13776553 0.90800005 5.9963439e-39
0.30928966 -0.13746208 0.90600002 4.5258928e-39
0.31241381 -0.13746208 0.90600002 4.247508e-39
0.31449312 -0.13700691 0.90300006 4.0598825e-39
0.31760693 -0.13700691 0.90300006 2.5901349e-39
0.32001036 -0.13670346 0.90100002 2.8624212e-39
0.32383451 -0.13700691 0.90300006 3.5059773e-39
0.32803449 -0.13746208 0.90600002 1.3887176e-39
nan nan nan 1.8507649e-39
nan nan nan 3.8718633e-39
nan nan nan 4.332138e-39
0.39954141 -0.16128278 1.0630001 5.4406366e-39
0.40320691 -0.16128278 1.0630001 6.5491421e-39
0.40687245 -0.16128278 1.0630001 7.1030418e-39
0.41440004 -0.16280001 1.0730001 6.3669089e-39
nan nan nan 5.4463889e-39
nan nan nan 6.2703972e-39
nan nan nan 5.1608421e-39
nan nan nan 7.7426757e-39
0.37318969 -0.14034484 0.92500007 7.0061868e-39
0.37637934 -0.14034484 0.92500007 8.7582962e-39
0.37669659 -0.13928278 0.91800004 9.868573e-39
0.3798621 -0.13928278 0.91800004 1.1619938e-38
0.38511381 -0.1400414 0.92300004 1.1529185e-38
nan nan nan 4.7085128e-39
0.39232761 -0.14034484 0.92500007 1.9376118e-39
0.39551726 -0.14034484 0.92500007 3.22618e-39
0.39870691 -0.14034484 0.92500007 4.5190895e-39
0.40189657 -0.14034484 0.92500007 4.4268938e-39
0.40421036 -0.1400414 0.92300004 3.9683904e-39
0.40606898 -0.13958621 0.92000002 4.6105228e-39
0.40924138 -0.13958621 0.92000002 4.7027184e-39
0.41241381 -0.13958621 0.92000002 3.9666079e-39
0.4155862 -0.13958621 0.92000002 4.059507e-39
0.42012417 -0.1400414 0.92300004 4.7942106e-39
0.42101383 -0.13928278 0.91800004 4.8871097e-39
0.42417935 -0.13928278 0.91800004 4.336447e-39
0.42734486 -0.13928278 0.91800004 3.8761947e-39
0.42910346 -0.13882759 0.91500002 4.059507e-39
0.43367586 -0.13928278 0.91800004 5.2562453e-39
0.43541378 -0.13882759 0.91500002 5.0715009e-39
0.43761036 -0.13852414 0.91300005 2.4954127e-39
nan nan nan 6.7324516e-39
nan nan nan 6.5491295e-39
nan nan nan 8.0235407e-39
nan nan nan 7.6533163e-39
nan nan nan 7.744786e-39
nan nan nan 6.5473373e-39
nan nan nan 6.9146722e-39
nan nan nan 5.3462675e-39
nan nan nan 6.9114352e-39
nan nan nan 4.6987401e-39
nan nan nan 4.6987401e-39
nan nan nan 3.2250492e-39
nan nan nan 1.6620395e-39
nan nan nan 2.030822e-39
nan nan nan 2.2145154e-39
nan nan nan 2.8577142e-39
nan nan nan 2.8577142e-39
nan nan nan 2.8577142e-39
nan nan nan 2.0301241e-39
nan nan nan 2.0304717e-39
nan nan nan 1.0423864e-38
nan nan nan 1.0332024e-38
nan nan nan 1.0054003e-38
-0.66427249 -0.18193451 1.2270001 1.0884119e-38
-0.65788966 -0.18134139 1.223 9.8703274e-39
-0.65367246 -0.18134139 1.223 1.0239473e-38
-0.64733106 -0.1807483 1.2190001 9.6880969e-39
-0.64523798 -0.18134139 1.223 1.1069224e-38
-0.64102072 -0.18134139 1.223 9.8706777e-39
-0.63472074 -0.1807483 1.2190001 1.1159621e-38
-0.63051724 -0.1807483 1.2190001 1.0699728e-38
-0.6237449 -0.18000692 1.2140001 1.042422e-38
-0.61955863 -0.18000692 1.2140001 1.0332024e-38
-0.61334485 -0.17941381 1.21 9.9628888e-39
-0.6091724 -0.17941381 1.21 1.079157e-38
-0.60500002 -0.17941381 1.21 1.0422785e-38
-0.60281384 -0.18000692 1.2140001 1.1068145e-38
-0.60109317 -0.1807483 1.2190001 9.9632391e-39
-0.59884828 -0.18134139 1.223 1.0238034e-38
-0.59463108 -0.18134139 1.223 1.1710993e-38
-0.5884828 -0.1807483 1.2190001 1.0973425e-38
-0.58188277 -0.18000692 1.2140001 1.1067782e-38
-0.58007592 -0.1807483 1.2190001 1.1067426e-38
-0.57587242 -0.1807483 1.2190001 1.1158192e-38
-0.57166904 -0.1807483 1.2190001 1.1434409e-38
-0.5674656 -0.1807483 1.2190001 1.1525533e-38
-0.56095177 -0.18000692 1.2140001 1.1435129e-38
-0.55676556 -0.18000692 1.2140001 1.0422419e-38
-0.55257934 -0.18000692 1.2140001 1.0975959e-38
-0.54839313 -0.18000692 1.2140001 1.134366e-38
-0.54644835 -0.1807483 1.2190001 1.1619521e-38
-0.54002076 -0.18000692 1.2140001 1.1711716e-38
-0.53583455 -0.18000692 1.2140001 1.1067426e-38
-0.53164834 -0.18000692 1.2140001 1.2081578e-38
-0.52746212 -0.18000692 1.2140001 1.1526975e-38
-0.52327591 -0.18000692 1.2140001 1.1987953e-38
-0.5190897 -0.18000692 1.2140001 1.1804638e-38
-0.51490349 -0.18000692 1.2140001 1.2171621e-38
-0.51071727 -0.18000692 1.2140001 1.2999937e-38
-0.50653106 -0.18000692 1.2140001 1.2263817e-38
-0.50234491 -0.18000692 1.2140001 1.1713151e-38
-0.49815866 -0.18000692 1.2140001 1.2174142e-38
-0.49397248 -0.18000692 1.2140001 1.1989029e-38
-0.48978627 -0.18000692 1.2140001 1.189578e-38
-0.48400003 -0.17941381 1.21 1.2172344e-38
-0.47982761 -0.17941381 1.21 1.1620252e-38
-0.4756552 -0.17941381 1.21 1.2632616e-38
nan nan nan 1.1709586e-38
-0.3912276 -0.15020345 1.013 5.1665832e-39
-0.38888276 -0.15064828 1.016 1.1103258e-39
-0.38537931 -0.15064828 1.016 1.4772979e-39
-0.38074827 -0.15020345 1.013 6.5079664e-40
-0.37725517 -0.15020345 1.013 5.5931007e-40
-0.37265515 -0.14975862 1.01 1.5694935e-39
-0.37026897 -0.15020345 1.013 1.3872603e-39
-0.36786208 -0.15064828 1.016 1.8457329e-39
nan nan nan 2.7655186e-39
nan nan nan 2.7676864e-39
nan nan nan 2.590488e-39
nan nan nan 4.1567221e-39
nan nan nan 3.5999358e-39
-0.4117035 -0.17882071 1.2060001 9.9600119e-39
-0.40889657 -0.17941381 1.21 1.0422072e-38
-0.40472415 -0.17941381 1.21 1.0422072e-38
-0.40055174 -0.17941381 1.21 1.0329873e-38
-0.39637932 -0.17941381 1.21 1.0514984e-38
-0.39091036 -0.17882071 1.2060001 1.0699375e-38
-0.38803449 -0.17941381 1.21 1.125147e-38
-0.38259313 -0.17882071 1.2060001 1.0698656e-38
-0.37968966 -0.17941381 1.21 1.1895754e-38
-0.37427586 -0.17882071 1.2060001 1.198723e-38
-0.37011725 -0.17882071 1.2060001 1.1803192e-38
-0.36717245 -0.17941381 1.21 1.2171265e-38
-0.36180004 -0.17882071 1.2060001 1.2816634e-38
-0.35764143 -0.17882071 1.2060001 1.2541127e-38
-0.35231036 -0.17822759 1.202 1.2450013e-38
-0.34816554 -0.17822759 1.202 1.2265984e-38
-0.34402069 -0.17822759 1.202 1.2634048e-38
-0.34100693 -0.17882071 1.2060001 1.3003184e-38
-0.33573103 -0.17822759 1.202 1.3647471e-38
-0.33158621 -0.17822759 1.202 1.3554202e-38
-0.32607931 -0.17748621 1.197 1.4014818e-38
-0.32195172 -0.17748621 1.197 1.3463809e-38
-0.31915173 -0.17822759 1.202 1.3187941e-38
-0.31500688 -0.17822759 1.202 1.3832944e-38
-0.31086206 -0.17822759 1.202 1.3557086e-38
-0.30544138 -0.17748621 1.197 1.392514e-38
-0.30131379 -0.17748621 1.197 1.4292853e-38
-0.29842758 -0.17822759 1.202 1.4109531e-38
-0.29428276 -0.17822759 1.202 1.4110613e-38
-0.29013792 -0.17822759 1.202 1.3465254e-38
-0.2859931 -0.17822759 1.202 1.4386118e-38
-0.28067589 -0.17748621 1.197 1.4938932e-38
-0.2765483 -0.17748621 1.197 1.5213721e-38
-0.2724207 -0.17748621 1.197 1.5030409e-38
-0.26829311 -0.17748621 1.197 1.5121528e-38
-0.26416552 -0.17748621 1.197 1.5399194e-38
-0.25916898 -0.17689312 1.1930001 1.5582506e-38
-0.25505519 -0.17689312 1.1930001 1.5399191e-38
-0.2509414 -0.17689312 1.1930001 1.5214803e-38
-0.24682762 -0.17689312 1.1930001 1.5398112e-38
-0.24271381 -0.17689312 1.1930001 1.5398118e-38
-0.23860002 -0.17689312 1.1930001 1.622751e-38
-0.23448622 -0.17689312 1.1930001 1.622751e-38
-0.23037243 -0.17689312 1.1930001 1.5674699e-38
-0.2255 -0.1763 1.189 1.6134954e-38
-0.22139999 -0.1763 1.189 1.622715e-38
-0.2173 -0.1763 1.189 1.6043482e-38
-0.2132 -0.1763 1.189 1.6319352e-38
-0.20910001 -0.1763 1.189 1.6320074e-38
-0.20568967 -0.17689312 1.1930001 1.641262e-38
-0.20157588 -0.17689312 1.1930001 1.6596292e-38
-0.19680001 -0.1763 1.189 1.6688488e-38
-0.1927 -0.1763 1.189 1.6689933e-38
-0.18796553 -0.17570691 1.1850001 1.6874318e-38
-0.18387932 -0.17570691 1.1850001 1.7426772e-38
-0.17918622 -0.17511381 1.1810001 1.7979946e-38
-0.17570691 -0.17570691 1.1850001 1.7427495e-38
-0.1716207 -0.17570691 1.1850001 1.8349451e-38
-0.1675345 -0.17570691 1.1850001 1.8441647e-38
-0.16344829 -0.17570691 1.1850001 1.8533845e-38
-0.15936208 -0.17570691 1.1850001 1.8349451e-38
-0.15527587 -0.17570691 1.1850001 1.9085943e-38
-0.15118966 -0.17570691 1.1850001 1.9087019e-38
-0.14710346 -0.17570691 1.1850001 1.9547997e-38
-0.14301725 -0.17570691 1.1850001 1.9086666e-38
-0.13893105 -0.17570691 1.1850001 1.936325e-38
-0.13438967 -0.17511381 1.1810001 1.9455446e-38
-0.13031726 -0.17511381 1.1810001 1.9087382e-38
-0.12624484 -0.17511381 1.1810001 1.9087019e-38
-0.12217243 -0.17511381 1.1810001 1.9085943e-38
-0.11810001 -0.17511381 1.1810001 1.9086663e-38
-0.1140276 -0.17511381 1.1810001 1.8902272e-38
-0.10995518 -0.17511381 1.1810001 1.9179575e-38
-0.10588277 -0.17511381 1.1810001 1.9179215e-38
-0.10181036 -0.17511381 1.1810001 1.8993744e-38
-0.097406901 -0.1745207 1.177 1.9638395e-38
-0.09334828 -0.1745207 1.177 1.8993744e-38
-0.089289665 -0.1745207 1.177 1.9087019e-38
-0.085231036 -0.1745207 1.177 1.8810432e-38
-0.081172414 -0.1745207 1.177 1.8993744e-38
-0.077113792 -0.1745207 1.177 1.9178133e-38
-0.073055178 -0.1745207 1.177 1.8992665e-38
-0.068996556 -0.1745207 1.177 1.8993026e-38
-0.064937934 -0.1745207 1.177 1.8717883e-38
-0.060879316 -0.1745207 1.177 1.8165073e-38
-0.05662759 -0.17392761 1.1730001 1.8442013e-38
-0.052582763 -0.17392761 1.1730001 1.807323e-38
-0.048372414 -0.17333449 1.169 1.862712e-38
-0.044341382 -0.17333449 1.169 1.7705524e-38
-0.040310346 -0.17333449 1.169 1.816506e-38
-0.03627931 -0.17333449 1.169 1.8164707e-38
-0.032137934 -0.1727414 1.1650001 1.8625688e-38
-0.028120691 -0.1727414 1.1650001 1.8256903e-38
-0.02410345 -0.1727414 1.1650001 1.8811511e-38
-0.020086208 -0.1727414 1.1650001 1.8441294e-38
-0.016124139 -0.17333449 1.169 1.8625685e-38
-0.012093103 -0.17333449 1.169 1.8718237e-38
-0.0080344835 -0.1727414 1.1650001 1.7981032e-38
-0.0040172418 -0.1727414 1.1650001 1.8257258e-38
0 -0.1727414 1.1650001 1.8349454e-38
0.0040172418 -0.1727414 1.1650001 1.8256903e-38
0.0080344835 -0.1727414 1.1650001 1.8256903e-38
0.012010345 -0.17214829 1.161 1.807323e-38
0.015958622 -0.17155519 1.1570001 1.7336744e-38
0.019948278 -0.17155519 1.1570001 1.7059078e-38
0.023937933 -0.17155519 1.1570001 1.7795204e-38
0.027831035 -0.17096208 1.153 1.7150555e-38
0.031806897 -0.17096208 1.153 1.7612249e-38
0.035782758 -0.17096208 1.153 1.6966883e-38
0.039896555 -0.17155519 1.1570001 1.6966527e-38
0.043886211 -0.17155519 1.1570001 1.6322958e-38
0.047710344 -0.17096208 1.153 1.6598453e-38
0.051686209 -0.17096208 1.153 1.6321147e-38
0.055662069 -0.17096208 1.153 1.6413353e-38
0.059637934 -0.17096208 1.153 1.6414437e-38
0.063613795 -0.17096208 1.153 1.5953094e-38
0.067589656 -0.17096208 1.153 1.6414072e-38
0.071565516 -0.17096208 1.153 1.6506267e-38
0.07527931 -0.17036898 1.149 1.6413353e-38
0.07924138 -0.17036898 1.149 1.6413353e-38
0.083203457 -0.17036898 1.149 1.6505904e-38
0.08686208 -0.16977589 1.1450001 1.6505186e-38
0.090810351 -0.16977589 1.1450001 1.7241302e-38
0.09475863 -0.16977589 1.1450001 1.7056917e-38
0.098706909 -0.16977589 1.1450001 1.6321873e-38
0.10265519 -0.16977589 1.1450001 1.6321876e-38
0.10660346 -0.16977589 1.1450001 1.5769062e-38
0.11055173 -0.16977589 1.1450001 1.6414432e-38
0.1141 -0.16918276 1.141 1.6045652e-38
0.11803449 -0.16918276 1.141 1.6136766e-38
0.12196897 -0.16918276 1.141 1.6137119e-38
0.12590346 -0.16918276 1.141 1.6137845e-38
0.12983793 -0.16918276 1.141 1.6137845e-38
0.13377242 -0.16918276 1.141 1.6045286e-38
0.13770689 -0.16918276 1.141 1.6596658e-38
0.14126897 -0.16873793 1.138 1.6319718e-38
0.1451931 -0.16873793 1.138 1.5492478e-38
0.14911723 -0.16873793 1.138 1.5677949e-38
0.15304138 -0.16873793 1.138 1.5308793e-38
0.15696552 -0.16873793 1.138 1.5767976e-38
0.16032414 -0.16814484 1.1340001 1.5491752e-38
0.16423449 -0.16814484 1.1340001 1.5123683e-38
0.16814484 -0.16814484 1.1340001 1.5124402e-38
0.17205518 -0.16814484 1.1340001 1.475455e-38
0.17596552 -0.16814484 1.1340001 1.4569443e-38
0.17987587 -0.16814484 1.1340001 1.4938589e-38
0.18378621 -0.16814484 1.1340001 1.4846033e-38
0.18703449 -0.16755173 1.13 1.4753832e-38
0.19093104 -0.16755173 1.13 1.4293923e-38
0.19482759 -0.16755173 1.13 1.4201737e-38
0.1980207 -0.16695863 1.126 1.3741843e-38
0.20190346 -0.16695863 1.126 1.3649645e-38
0.20578621 -0.16695863 1.126 1.4017338e-38
0.20966896 -0.16695863 1.126 1.3924071e-38
0.21298276 -0.1665138 1.123 1.3924071e-38
0.21685518 -0.1665138 1.123 1.3831875e-38
0.22072759 -0.1665138 1.123 1.3647487e-38
0.2246 -0.1665138 1.123 1.3372332e-38
0.22847243 -0.1665138 1.123 1.2543297e-38
0.23151727 -0.1659207 1.1190001 1.3094676e-38
0.23537587 -0.1659207 1.1190001 1.226276e-38
0.23923449 -0.1659207 1.1190001 1.2541858e-38
0.24309312 -0.1659207 1.1190001 1.2543297e-38
0.24695174 -0.1659207 1.1190001 1.1712458e-38
0.2499138 -0.16532759 1.115 1.2265271e-38
0.25375864 -0.16532759 1.115 8.1218474e-39
0.25945175 -0.1665138 1.123 6.2775999e-39
0.26238623 -0.1659207 1.1190001 1.1897202e-38
0.26624483 -0.1659207 1.1190001 1.1435511e-38
0.26913792 -0.16532759 1.115 1.1433353e-38
0.27298275 -0.16532759 1.115 1.1434073e-38
0.27608278 -0.16488278 1.1120001 1.079122e-38
0.27991724 -0.16488278 1.1120001 1.079123e-38
0.28375173 -0.16488278 1.1120001 9.9621825e-39
0.28655171 -0.16428967 1.108 6.1860951e-39
0.2903724 -0.16428967 1.108 3.7832957e-39
0.29419312 -0.16428967 1.108 7.46713e-39
0.29801381 -0.16428967 1.108 7.6515184e-39
0.30183449 -0.16428967 1.108 7.0075965e-39
0.3048276 -0.16384484 1.105 3.8754913e-39
0.30863795 -0.16384484 1.105 2.2217055e-39
0.31244829 -0.16384484 1.105 5.8119274e-39
0.31625864 -0.16384484 1.105 7.6533191e-39
0.32006899 -0.16384484 1.105 8.7618246e-39
0.32270694 -0.16325174 1.1010001 9.4972289e-39
0.32531726 -0.16265863 1.097 8.7607526e-39
0.32820004 -0.16221382 1.0940001 9.9564218e-39
nan nan nan 6.6395329e-39
0.28387931 -0.13715519 0.92500007 1.7538848e-39
0.28644827 -0.13685863 0.92300004 2.7655186e-39
0.28806207 -0.13611725 0.91800004 2.5796798e-39
0.28964138 -0.13537587 0.91300005 3.2275533e-39
0.29182759 -0.13493104 0.91000003 7.6544051e-39
0.29431725 -0.13463449 0.90800005 1.1342621e-38
0.2967931 -0.13433793 0.90600002 7.9349969e-39
0.29991725 -0.13433793 0.90600002 8.1204307e-39
0.3030414 -0.13433793 0.90600002 7.1034173e-39
0.30616552 -0.13433793 0.90600002 6.8250228e-39
0.30826554 -0.13389312 0.90300006 5.6272055e-39
0.31137934 -0.13389312 0.90300006 5.719757e-39
0.31379658 -0.13359655 0.90100002 5.0743876e-39
0.31690347 -0.13359655 0.90100002 4.5215641e-39
0.32001036 -0.13359655 0.90100002 3.9676869e-39
0.32311726 -0.13359655 0.90100002 3.6907245e-39
0.32694829 -0.13389312 0.90300006 2.4936134e-39
nan nan nan 5.5364195e-39
nan nan nan 3.8754913e-39
nan nan nan 4.057349e-39
0.35067931 -0.13834138 0.93300003 3.6892699e-39
0.35389656 -0.13834138 0.93300003 4.7934693e-39
0.35596552 -0.13789657 0.93000007 3.8729577e-39
0.35840002 -0.1376 0.92800003 4.8899963e-39
0.35965174 -0.13685863 0.92300004 3.5077752e-39
0.36283451 -0.13685863 0.92300004 3.5077724e-39
0.36601725 -0.13685863 0.92300004 1.3551704e-38
0.36920002 -0.13685863 0.92300004 1.696293e-38
0.37318969 -0.13715519 0.92500007 1.447727e-38
0.37637934 -0.13715519 0.92500007 1.4386146e-38
0.37956899 -0.13715519 0.92500007 1.3740085e-38
0.38193107 -0.13685863 0.92300004 1.309687e-38
0.38511381 -0.13685863 0.92300004 1.4018813e-38
0.38703448 -0.1364138 0.92000002 1.4292872e-38
0.39232761 -0.13715519 0.92500007 1.3093244e-38
0.39551726 -0.13715519 0.92500007 1.3556017e-38
0.39870691 -0.13715519 0.92500007 1.438326e-38
0.39972413 -0.1364138 0.92000002 1.0051157e-38
0.40289655 -0.1364138 0.92000002 4.0609391e-39
0.40518624 -0.13611725 0.91800004 4.5197817e-39
0.40835175 -0.13611725 0.91800004 4.4254281e-39
0.41151726 -0.13611725 0.91800004 3.7818663e-39
0.41468278 -0.13611725 0.91800004 4.0588035e-39
0.41784829 -0.13611725 0.91800004 2.7734625e-39
0.42101383 -0.13611725 0.91800004 3.9683904e-39
0.42417935 -0.13611725 0.91800004 4.1517026e-39
0.42594829 -0.13567242 0.91500002 4.2410368e-39
0.42910346 -0.13567242 0.91500002 3.9651534e-39
0.43225861 -0.13567242 0.91500002 4.8874628e-39
0.43541378 -0.13567242 0.91500002 4.5197817e-39
0.43761036 -0.13537587 0.91300005 4.797072e-39
nan nan nan 5.9023476e-39
nan nan nan 6.6377322e-39
nan nan nan 5.2522642e-39
nan nan nan 5.4366555e-39
nan nan nan 4.8856397e-39
nan nan nan 4.8834817e-39
nan nan nan 5.2511852e-39
nan nan nan 5.5277721e-39
nan nan nan 4.9760277e-39
nan nan nan 4.6087025e-39
nan nan nan 4.1480719e-39
nan nan nan 3.3172448e-39
nan nan nan 2.3048907e-39
nan nan nan 2.764071e-39
nan nan nan 2.7655186e-39
nan nan nan 2.2148629e-39
nan nan nan 2.030822e-39
nan nan nan 2.5811273e-39
nan nan nan 1.8457329e-39
nan nan nan 1.938276e-39
nan nan nan 9.688813e-39
nan nan nan 9.7810086e-39
nan nan nan 1.0056158e-38
-0.66697937 -0.17842761 1.2320001 9.6877438e-39
-0.66004145 -0.17770347 1.2270001 1.0700438e-38
-0.65581042 -0.17770347 1.2270001 1.0333101e-38
-0.64945519 -0.17712414 1.223 9.5958985e-39
-0.64734834 -0.17770347 1.2270001 1.0424217e-38
-0.64311731 -0.17770347 1.2270001 9.5951796e-39
-0.63888627 -0.17770347 1.2270001 1.0699722e-38
-0.63465524 -0.17770347 1.2270001 1.0607883e-38
-0.62836897 -0.17712414 1.223 1.023911e-38
-0.62211037 -0.17654485 1.2190001 1.0607892e-38
-0.61537248 -0.17582071 1.2140001 1.0239829e-38
-0.61118621 -0.17582071 1.2140001 1.0331668e-38
-0.60700005 -0.17582071 1.2140001 9.5019078e-39
-0.60529661 -0.17654485 1.2190001 1.0421696e-38
-0.60306555 -0.17712414 1.223 1.0881956e-38
-0.59884828 -0.17712414 1.223 1.0146554e-38
-0.59463108 -0.17712414 1.223 9.6855704e-39
-0.59041381 -0.17712414 1.223 1.1068145e-38
-0.58427936 -0.17654485 1.2190001 1.0883753e-38
-0.58007592 -0.17654485 1.2190001 1.1158542e-38
-0.57587242 -0.17654485 1.2190001 1.1065997e-38
-0.57166904 -0.17654485 1.2190001 1.1159621e-38
-0.5674656 -0.17654485 1.2190001 1.1065994e-38
-0.5632621 -0.17654485 1.2190001 1.1251817e-38
-0.55905867 -0.17654485 1.2190001 1.180247e-38
-0.55485523 -0.17654485 1.2190001 1.1618081e-38
-0.55065179 -0.17654485 1.2190001 1.1710277e-38
-0.54644835 -0.17654485 1.2190001 1.1618081e-38
-0.54224485 -0.17654485 1.2190001 1.1619877e-38
-0.53804141 -0.17654485 1.2190001 1.1250385e-38
-0.53558969 -0.17712414 1.223 1.1251467e-38
-0.52963454 -0.17654485 1.2190001 1.1251464e-38
-0.5254311 -0.17654485 1.2190001 1.198795e-38
-0.5212276 -0.17654485 1.2190001 1.1526252e-38
-0.51490349 -0.17582071 1.2140001 1.198795e-38
-0.51071727 -0.17582071 1.2140001 1.226454e-38
-0.50653106 -0.17582071 1.2140001 1.1435858e-38
-0.50234491 -0.17582071 1.2140001 1.1712795e-38
-0.5002104 -0.17654485 1.2190001 1.2265969e-38
-0.49397248 -0.17582071 1.2140001 1.1711366e-38
-0.48978627 -0.17582071 1.2140001 1.2356382e-38
-0.48760006 -0.17654485 1.2190001 1.1711366e-38
-0.48498279 -0.17712414 1.223 1.2081227e-38
-0.48076555 -0.17712414 1.223 1.2264187e-38
nan nan nan 1.1345473e-38
nan nan nan 7.6623462e-39
nan nan nan 5.5788074e-40
-0.38537931 -0.14714484 1.016 1.2947171e-39
-0.38074827 -0.14671035 1.013 8.3589695e-40
-0.37725517 -0.14671035 1.013 7.4370132e-40
-0.37376207 -0.14671035 1.013 1.0184777e-39
nan nan nan 9.2593458e-40
nan nan nan 1.2003635e-39
nan nan nan 1.8482384e-39
nan nan nan 2.6758411e-39
nan nan nan 3.2286617e-39
nan nan nan 4.5219173e-39
nan nan nan 1.3022673e-39
-0.41306898 -0.1752414 1.21 6.4580101e-39
-0.41024831 -0.17582071 1.2140001 1.0788703e-38
-0.4060621 -0.17582071 1.2140001 9.9611035e-39
-0.40187588 -0.17582071 1.2140001 1.0145129e-38
-0.3976897 -0.17582071 1.2140001 1.0513186e-38
-0.39220691 -0.1752414 1.21 1.0236602e-38
-0.38803449 -0.1752414 1.21 1.1065999e-38
-0.38386208 -0.1752414 1.21 1.1158192e-38
-0.37968966 -0.1752414 1.21 1.1434776e-38
-0.37551725 -0.1752414 1.21 1.1710996e-38
-0.37134483 -0.1752414 1.21 1.1987953e-38
-0.36717245 -0.1752414 1.21 1.2172347e-38
-0.36300004 -0.1752414 1.21 1.2355662e-38
-0.35882762 -0.1752414 1.21 1.2724079e-38
-0.35348278 -0.17466208 1.2060001 1.2633322e-38
-0.35048279 -0.1752414 1.21 1.1988691e-38
-0.34631035 -0.1752414 1.21 1.2634048e-38
-0.34213793 -0.1752414 1.21 1.3094303e-38
-0.33684829 -0.17466208 1.2060001 1.2817716e-38
-0.33268967 -0.17466208 1.2060001 1.3187578e-38
-0.32853106 -0.17466208 1.2060001 1.3279418e-38
-0.32437244 -0.17466208 1.2060001 1.3003199e-38
-0.32021379 -0.17466208 1.2060001 1.2910991e-38
-0.31500688 -0.17408277 1.202 1.3464165e-38
-0.31086206 -0.17408277 1.202 1.3556367e-38
-0.30671725 -0.17408277 1.202 1.3095392e-38
-0.3025724 -0.17408277 1.202 1.3646768e-38
-0.29942071 -0.17466208 1.2060001 1.4108455e-38
-0.2952621 -0.17466208 1.2060001 1.4568351e-38
-0.29110345 -0.17466208 1.2060001 1.4752746e-38
-0.2859931 -0.17408277 1.202 1.4291765e-38
-0.28184828 -0.17408277 1.202 1.5120449e-38
-0.27770346 -0.17408277 1.202 1.5212642e-38
-0.27355862 -0.17408277 1.202 1.4753822e-38
-0.2694138 -0.17408277 1.202 1.4846736e-38
-0.26526898 -0.17408277 1.202 1.5030411e-38
-0.26112413 -0.17408277 1.202 1.5582503e-38
-0.25697932 -0.17408277 1.202 1.5305916e-38
-0.25178275 -0.17335863 1.197 1.5398112e-38
-0.24765518 -0.17335863 1.197 1.5306995e-38
-0.24352759 -0.17335863 1.197 1.4847099e-38
-0.23940001 -0.17335863 1.197 1.4847815e-38
-0.23527242 -0.17335863 1.197 1.4939292e-38
-0.23114483 -0.17335863 1.197 1.5766895e-38
-0.22625864 -0.17277932 1.1930001 1.5489945e-38
-0.22214484 -0.17277932 1.1930001 1.585908e-38
-0.21803103 -0.17277932 1.1930001 1.5859083e-38
-0.21391727 -0.17277932 1.1930001 1.5949125e-38
-0.20980346 -0.17277932 1.1930001 1.6410819e-38
-0.20637932 -0.17335863 1.197 1.6136033e-38
-0.20157588 -0.17277932 1.1930001 1.6044558e-38
-0.19812414 -0.17335863 1.197 1.6320424e-38
-0.19399655 -0.17335863 1.197 1.6227876e-38
-0.18796553 -0.1716207 1.1850001 1.6689927e-38
-0.1851207 -0.17277932 1.1930001 1.6965794e-38
-0.18040001 -0.17220001 1.189 1.7241662e-38
-0.1763 -0.17220001 1.189 1.7518614e-38
-0.17220001 -0.17220001 1.189 1.7888473e-38
-0.1681 -0.17220001 1.189 1.8257256e-38
-0.164 -0.17220001 1.189 1.82587e-38
-0.15989999 -0.17220001 1.189 1.8811148e-38
-0.1558 -0.17220001 1.189 1.8810792e-38
-0.15169999 -0.17220001 1.189 1.8810795e-38
-0.1476 -0.17220001 1.189 1.9087019e-38
-0.1435 -0.17220001 1.189 1.9455802e-38
-0.13893105 -0.1716207 1.1850001 1.927141e-38
-0.13484484 -0.1716207 1.1850001 1.9363606e-38
-0.13075863 -0.1716207 1.1850001 1.8810795e-38
-0.12667242 -0.1716207 1.1850001 1.9179215e-38
-0.12258622 -0.1716207 1.1850001 1.9363606e-38
-0.11850001 -0.1716207 1.1850001 1.908594e-38
-0.1144138 -0.1716207 1.1850001 1.8901549e-38
-0.11032759 -0.1716207 1.1850001 1.844165e-38
-0.10624139 -0.1716207 1.1850001 1.8718597e-38
-0.10181036 -0.1710414 1.1810001 1.8257258e-38
-0.097737938 -0.1710414 1.1810001 1.8072511e-38
-0.093665525 -0.1710414 1.1810001 1.8073593e-38
-0.089593112 -0.1710414 1.1810001 1.7980318e-38
-0.085231036 -0.17046207 1.177 1.8348378e-38
-0.081172414 -0.17046207 1.177 1.8256179e-38
-0.077113792 -0.17046207 1.177 1.8071785e-38
-0.073055178 -0.17046207 1.177 1.7336025e-38
-0.068996556 -0.17046207 1.177 1.7520056e-38
-0.064937934 -0.17046207 1.177 1.7335309e-38
-0.060879316 -0.17046207 1.177 1.7609375e-38
-0.056820691 -0.17046207 1.177 1.7886681e-38
-0.052762073 -0.17046207 1.177 1.7794848e-38
-0.048537936 -0.16988277 1.1730001 1.7610091e-38
-0.044493109 -0.16988277 1.1730001 1.7887034e-38
-0.040586207 -0.17046207 1.177 1.7703006e-38
-0.036403451 -0.16988277 1.1730001 1.7426422e-38
-0.032358624 -0.16988277 1.1730001 1.761118e-38
-0.028217241 -0.16930346 1.169 1.7336388e-38
-0.024186207 -0.16930346 1.169 1.6692101e-38
-0.020155173 -0.16930346 1.169 1.7151274e-38
-0.016179312 -0.16988277 1.1730001 1.7335665e-38
-0.012134484 -0.16988277 1.1730001 1.6691375e-38
-0.0080620693 -0.16930346 1.169 1.6876126e-38
-0.0040310347 -0.16930346 1.169 1.6691019e-38
0 -0.16930346 1.169 1.7335665e-38
0.0040172418 -0.16872415 1.1650001 1.6597744e-38
0.0080344835 -0.16872415 1.1650001 1.668994e-38
0.012051725 -0.16872415 1.1650001 1.6873971e-38
0.016068967 -0.16872415 1.1650001 1.6965441e-38
0.020086208 -0.16872415 1.1650001 1.6782135e-38
0.02402069 -0.16814484 1.161 1.6505548e-38
0.027927587 -0.16756552 1.1570001 1.5861614e-38
0.031917244 -0.16756552 1.1570001 1.6230031e-38
0.036031034 -0.16814484 1.161 1.604457e-38
0.040034484 -0.16814484 1.161 1.567687e-38
0.044037934 -0.16814484 1.161 1.5861261e-38
0.048041381 -0.16814484 1.161 1.5676857e-38
0.051865522 -0.16756552 1.1570001 1.5860532e-38
0.055855174 -0.16756552 1.1570001 1.5952368e-38
0.059844833 -0.16756552 1.1570001 1.5766897e-38
0.063834488 -0.16756552 1.1570001 1.5952015e-38
0.06782414 -0.16756552 1.1570001 1.539992e-38
0.071565516 -0.16698621 1.153 1.5767983e-38
0.075541377 -0.16698621 1.153 1.5492118e-38
0.079517238 -0.16698621 1.153 1.5952015e-38
0.083493106 -0.16698621 1.153 1.5860169e-38
0.087165527 -0.16640691 1.149 1.6321147e-38
0.091127589 -0.16640691 1.149 1.6319708e-38
0.095089659 -0.16640691 1.149 1.6319358e-38
0.099051729 -0.16640691 1.149 1.6413709e-38
0.1030138 -0.16640691 1.149 1.5860901e-38
0.10697586 -0.16640691 1.149 1.5860182e-38
0.11093794 -0.16640691 1.149 1.5398485e-38
0.11490001 -0.16640691 1.149 1.5950936e-38
0.11844829 -0.1658276 1.1450001 1.613568e-38
0.12239656 -0.1658276 1.1450001 1.5399194e-38
0.12634484 -0.1658276 1.1450001 1.5675778e-38
0.13029312 -0.1658276 1.1450001 1.4663434e-38
0.1342414 -0.1658276 1.1450001 1.5124049e-38
0.13818966 -0.1658276 1.1450001 1.4847109e-38
0.14164138 -0.16524829 1.141 1.5216254e-38
0.14557587 -0.16524829 1.141 1.5583592e-38
0.14951034 -0.16524829 1.141 1.4846396e-38
0.15344483 -0.16524829 1.141 1.502933e-38
0.15696552 -0.1648138 1.138 1.5213721e-38
0.16088966 -0.1648138 1.138 1.5212645e-38
0.1648138 -0.1648138 1.138 1.4567991e-38
0.16873793 -0.1648138 1.138 1.4383244e-38
0.17266208 -0.1648138 1.138 1.4476884e-38
0.1765862 -0.1648138 1.138 1.3923358e-38
0.18051034 -0.1648138 1.138 1.3463814e-38
0.18378621 -0.16423449 1.1340001 1.3371979e-38
0.18769656 -0.16423449 1.1340001 1.327978e-38
0.19093104 -0.16365518 1.13 1.3465254e-38
0.19482759 -0.16365518 1.13 1.2820603e-38
0.19872414 -0.16365518 1.13 1.3003199e-38
0.2026207 -0.16365518 1.13 1.3095389e-38
0.20651723 -0.16365518 1.13 1.2819518e-38
0.21041378 -0.16365518 1.13 1.3004266e-38
0.21431035 -0.16365518 1.13 1.2357827e-38
0.2182069 -0.16365518 1.13 1.2632616e-38
0.22210345 -0.16365518 1.13 1.208088e-38
0.22520001 -0.16307588 1.126 1.2265984e-38
0.22908278 -0.16307588 1.126 1.2725518e-38
0.23234484 -0.16264139 1.123 1.1895404e-38
0.23621725 -0.16264139 1.123 1.1893978e-38
0.24008965 -0.16264139 1.123 1.1988684e-38
0.24309312 -0.16206208 1.1190001 1.0975258e-38
0.24695174 -0.16206208 1.1190001 1.0883416e-38
0.2499138 -0.16148277 1.115 1.1618817e-38
0.25466898 -0.16206208 1.1190001 6.6416755e-39
0.25852761 -0.16206208 1.1190001 1.0509601e-38
0.26238623 -0.16206208 1.1190001 1.134223e-38
0.26624483 -0.16206208 1.1190001 1.134151e-38
0.27010345 -0.16206208 1.1190001 1.042063e-38
0.27298275 -0.16148277 1.115 1.078797e-38
0.27682757 -0.16148277 1.115 1.0328434e-38
0.2806724 -0.16148277 1.115 1.0601441e-38
0.28451723 -0.16148277 1.115 7.0097391e-39
0.28758621 -0.16104829 1.1120001 6.5469589e-39
0.2903724 -0.16046898 1.108 9.8660142e-39
0.29419312 -0.16046898 1.108 9.4064724e-39
0.29801381 -0.16046898 1.108 9.4050332e-39
0.30183449 -0.16046898 1.108 9.405036e-39
0.30565518 -0.16046898 1.108 8.9455068e-39
0.30947587 -0.16046898 1.108 8.0235379e-39
0.31244829 -0.16003449 1.105 7.2827359e-39
0.31511381 -0.15945518 1.1010001 5.7150501e-39
0.32006899 -0.16003449 1.105 3.6853239e-39
0.32153448 -0.15887587 1.097 3.9665603e-39
0.32531726 -0.15887587 1.097 4.4289874e-39
0.33030003 -0.15945518 1.1010001 6.1803694e-39
nan nan nan 2.7712793e-39
0.28387931 -0.13396554 0.92500007 2.2123448e-39
0.28644827 -0.13367587 0.92300004 2.0304717e-39
0.28806207 -0.13295174 0.91800004 2.0279535e-39
0.28964138 -0.1322276 0.91300005 1.751717e-39
0.29118621 -0.13150346 0.90800005 2.4006583e-39
0.29366896 -0.1312138 0.90600002 9.592321e-39
0.2967931 -0.1312138 0.90600002 1.0697618e-38
0.29892415 -0.13077933 0.90300006 8.1200776e-39
0.30203795 -0.13077933 0.90300006 7.3810832e-39
0.30515173 -0.13077933 0.90300006 7.1026887e-39
0.30758277 -0.13048966 0.90100002 5.9059475e-39
0.31068966 -0.13048966 0.90100002 5.5350098e-39
0.31275174 -0.13005519 0.89800006 5.9023476e-39
0.31584832 -0.13005519 0.89800006 4.9825423e-39
0.31894487 -0.13005519 0.89800006 4.2438983e-39
0.32204142 -0.13005519 0.89800006 4.059507e-39
0.32622412 -0.13048966 0.90100002 3.3215986e-39
nan nan nan 3.8761947e-39
0.34240001 -0.13440001 0.92800003 4.8935809e-39
0.34560001 -0.13440001 0.92800003 4.0595294e-39
0.3488 -0.13440001 0.92800003 4.8903467e-39
0.352 -0.13440001 0.92800003 5.0736589e-39
0.35520002 -0.13440001 0.92800003 4.6119745e-39
0.35840002 -0.13440001 0.92800003 5.0722366e-39
0.36043108 -0.13396554 0.92500007 5.3509717e-39
0.36283451 -0.13367587 0.92300004 4.0627636e-39
0.36601725 -0.13367587 0.92300004 7.1959829e-39
0.36920002 -0.13367587 0.92300004 5.3502458e-39
0.37318969 -0.13396554 0.92500007 6.9179639e-39
0.37637934 -0.13396554 0.92500007 4.8899655e-39
0.3787483 -0.13367587 0.92300004 1.2726625e-38
0.38068968 -0.13324139 0.92000002 1.088488e-38
0.38386205 -0.13324139 0.92000002 5.9102832e-39
0.3861931 -0.13295174 0.91800004 6.6435182e-39
0.38935864 -0.13295174 0.91800004 6.9186757e-39
0.3933793 -0.13324139 0.92000002 5.0772715e-39
0.39655173 -0.13324139 0.92000002 4.0595294e-39
0.39885518 -0.13295174 0.91800004 3.9673338e-39
0.40202069 -0.13295174 0.91800004 4.4297216e-39
0.40386209 -0.13251725 0.91500002 4.6119745e-39
0.40701726 -0.13251725 0.91500002 4.702015e-39
0.41017243 -0.13251725 0.91500002 4.3350373e-39
0.41468278 -0.13295174 0.91800004 4.1509992e-39
0.41784829 -0.13295174 0.91800004 4.2438983e-39
0.42101383 -0.13295174 0.91800004 3.9644499e-39
0.42279312 -0.13251725 0.91500002 4.5183272e-39
0.42594829 -0.13251725 0.91500002 4.5176237e-39
